# .PCD v0.7 - Point Cloud Data file format
VERSION 0.7
FIELDS x y z
SIZE 4 4 4
TYPE F F F
COUNT 1 1 1
WIDTH 575
HEIGHT 1
VIEWPOINT 0 0 0 1 0 0 0
POINTS 575
DATA ascii
-0.0021982579 0.11646224 0.011792609
-0.0065218974 0.11950243 0.010069525
-0.0089644622 0.11626763 0.00797645
-0.011248366 0.11810926 0.0041772644
0.011949584 0.11826013 0.0010896027
0.010947246 0.1152553 0.0049077608
0.0097426791 0.11938129 0.0070046564
0.008912826 0.11630706 0.0080317166
0.0065291366 0.11872518 0.010065285
0.0024571258 0.1158402 0.011744249
-0.026599508 0.030321326 0.0099407826
-0.0034875344 0.036870703 0.0277302
-0.0028515363 0.044877909 0.026602536
-0.0037309728 0.051133212 0.025175914
-0.0032266446 0.065723695 0.020983217
-0.0025609955 0.079779312 0.016544396
-0.0018428919 0.091913082 0.01396178
-0.00129345 0.1085894 0.01213256
-0.0057617798 0.03439429 0.027600879
-0.0051207114 0.042395554 0.026692418
-0.0044299462 0.058429461 0.023112874
-0.0035061208 0.07638374 0.017382234
-0.0023796591 0.10518827 0.0121999
-0.0097173164 0.034209926 0.026480554
-0.0092811193 0.041621208 0.025679216
-0.007290232 0.065739222 0.019929199
-0.0049860822 0.088318124 0.013867127
-0.010541665 0.04865104 0.023775343
-0.0097044948 0.055943452 0.022210378
-0.0072812154 0.074396454 0.016847033
-0.015106866 0.039375674 0.023149692
-0.013255091 0.048150197 0.022495726
-0.013370609 0.054427717 0.020702967
-0.0098442715 0.073560283 0.015803983
-0.0084572677 0.083953544 0.013198641
-0.0070829387 0.097303368 0.011226587
-0.015981605 0.031054879 0.023444671
-0.01596809 0.043687206 0.021740777
-0.012967787 0.061877172 0.018367568
-0.021339467 0.036391024 0.018134184
-0.020089231 0.044537142 0.017764632
-0.018792909 0.052689955 0.016610445
-0.018615469 0.065155797 0.01059914
-0.025119837 0.034319475 0.012815932
-0.02380529 0.0414396 0.013452801
-0.022627817 0.048963483 0.012689489
-0.021232011 0.056791715 0.011205926
-0.017664617 0.06860815 0.0099324621
-0.01596796 0.075804979 0.0081089763
-0.012999396 0.087581761 0.0072408407
-0.026088342 0.040067334 0.0088179568
-0.024944708 0.04737943 0.0082185529
-0.020268105 0.065056264 0.0070184851
-0.012326195 0.099808753 0.0040142713
-0.027201761 0.032988433 0.00776318
-0.023774091 0.054211903 0.0066943425
-0.01788047 0.073495083 0.005269656
-0.014838119 0.084910296 0.0042964369
-0.028310446 0.031918213 0.001447762
-0.024876308 0.053362284 0.0013155264
-0.018930456 0.072534621 0.00095371646
-0.015635129 0.083932824 0.0011782132
-0.013364414 0.096344337 0.00096949033
-0.019821733 0.069918923 0.00022228352
-0.012094797 0.11056615 0.00018874505
0.026499279 0.046194751 0.00054259074
0.025180545 0.052227151 0.00071800209
0.020116394 0.069042102 1.5419311e-05
0.02445668 0.052855764 0.0053472235
0.02219652 0.061297853 0.0045983484
0.019506864 0.069056265 0.0049089417
0.013558711 0.093248129 0.002873641
0.011782624 0.11019201 0.0027984821
0.026904169 0.038377985 0.0069282092
0.011839084 0.10682606 0.0033657765
0.025347589 0.034606297 0.012300102
0.023279719 0.049255144 0.011292492
0.018763537 0.067332238 0.0087107979
0.021477809 0.056843646 0.010711268
0.013139584 0.087027885 0.0072277086
0.017253241 0.063350521 0.013669658
0.015148934 0.072947554 0.011160873
0.021887979 0.032209516 0.017996682
0.021069312 0.039045587 0.01795454
0.020579649 0.046729777 0.016538598
0.018747551 0.055551071 0.015524162
0.011884475 0.084955379 0.009852251
0.009943869 0.098669507 0.0085211229
0.017318591 0.030726064 0.022487529
0.0098250648 0.081850581 0.01286543
0.007560329 0.1126726 0.0093533387
0.016440241 0.036956336 0.022596974
0.015428831 0.045240343 0.021767465
0.014713335 0.053550314 0.020052044
0.013095347 0.060923792 0.018638397
0.011289346 0.069454439 0.016482467
0.0080137458 0.094797276 0.011023451
0.0068188496 0.10933636 0.010065062
0.010225018 0.060221039 0.020598713
0.0080514103 0.068680041 0.018566923
0.0070139249 0.034675416 0.02727998
0.0060141194 0.048999336 0.025221318
0.0052517974 0.066579439 0.020272318
0.0045139845 0.033171453 0.027922502
0.0050093578 0.040436883 0.027025986
0.0041093249 0.055570967 0.023987964
0.0037058746 0.062850989 0.021859223
0.0028081075 0.085273407 0.015110143
-0.00010486146 0.04059175 0.027471386
-0.00034507422 0.054770116 0.024548497
-0.00084855553 0.062298276 0.022332374
-0.00040336399 0.09828724 0.01313887
-0.0018279003 0.072207898 0.018975772
-0.0014361074 0.048356779 0.026029849
-0.0026858146 0.031883195 0.02822141
-0.0063422355 0.047542583 0.025450766
-0.0057293051 0.055945773 0.023547284
-0.0034145338 0.085422665 0.014953448
-0.0029145223 0.10015421 0.012590985
-0.0035220352 0.11269231 0.011496646
-0.0037444073 0.095200151 0.013038632
-0.0045423578 0.081717692 0.015573647
-0.0057328632 0.069299161 0.019191295
-0.006909125 0.060977571 0.02169192
-0.0075991321 0.052575864 0.023928126
-0.0082192644 0.045215964 0.025394019
-0.0083707608 0.036951579 0.026657939
-0.0080104079 0.031045858 0.027218835
-0.0054931757 0.1024294 0.011426817
-0.0059080445 0.10930006 0.010626847
-0.006749847 0.093884617 0.011994597
-0.0080346167 0.079607859 0.014738427
-0.009491181 0.068999454 0.017752226
-0.010562117 0.060363863 0.020383626
-0.011699296 0.052116096 0.022341965
-0.012756839 0.043944776 0.023704277
-0.013545888 0.036918461 0.024439823
-0.0055505265 0.11495287 0.010637976
-0.017365497 0.034766611 0.022163745
-0.015533607 0.049361907 0.020661922
-0.014079886 0.058060803 0.018997002
-0.013217353 0.065457053 0.016722737
-0.010521471 0.07700409 0.014040183
-0.0087734992 0.089177437 0.011636521
-0.0078542344 0.10374324 0.0097985901
-0.01802595 0.040006053 0.020829881
-0.017538559 0.04727513 0.019581204
-0.016077152 0.055794194 0.018189684
-0.012509371 0.073647365 0.013761135
-0.0086294441 0.10052224 0.0095683709
-0.0086005619 0.1109548 0.0084928451
-0.0094976267 0.09455581 0.0098203151
-0.011046974 0.082079075 0.011751744
-0.013601221 0.070071831 0.014351288
-0.015757225 0.060791738 0.016505638
-0.019699536 0.031086091 0.020417495
-0.022718715 0.034172919 0.016725838
-0.020303808 0.049597982 0.015914695
-0.018800324 0.057664081 0.014522915
-0.016469719 0.066829592 0.01279721
-0.014206391 0.076235071 0.010684124
-0.0099213738 0.10378805 0.0076908576
-0.010065976 0.10782732 0.0069629368
-0.014044181 0.079887398 0.0090558231
-0.019164024 0.0601146 0.012769249
-0.021098856 0.051765993 0.013965718
-0.022000955 0.044332966 0.015391477
-0.010140672 0.11295135 0.0064619943
-0.013199388 0.091275752 0.0052135848
-0.023507621 0.051424567 0.0095742829
-0.02505422 0.042998087 0.010280625
-0.026157601 0.035304435 0.010290404
-0.011543115 0.11320885 0.0033431975
-0.027214656 0.036174014 0.0067251376
-0.020027809 0.067830853 0.0044684494
-0.016192643 0.079894014 0.004127101
-0.027019111 0.04111195 0.0044819447
-0.025550188 0.04908755 0.0042955568
-0.0234986 0.057183076 0.00433842
-0.021178707 0.065085471 0.0033459358
-0.017516933 0.076221444 0.0030454525
-0.01439476 0.088726506 0.0027806868
-0.012279548 0.10469821 0.0021570339
-0.012136518 0.10770284 0.001641799
-0.013935541 0.092168435 0.001704935
-0.022652889 0.060743377 0.002877011
-0.026500786 0.044779081 0.0038019305
-0.027628224 0.037529934 0.0036956735
0.028082244 0.03475536 0.002064649
0.023585968 0.058093604 0.0014553888
0.021168761 0.065717168 0.0015900988
0.017604565 0.076772682 0.00070377102
0.014604639 0.088918313 0.00073764648
0.027244637 0.040678628 0.003373252
0.02573541 0.048886318 0.0033704995
0.024132945 0.055672567 0.0029071632
0.012783014 0.10094151 0.0012000465
0.01312365 0.097012706 0.0022304479
0.01592928 0.081959277 0.0027160791
0.018986756 0.071670309 0.0031154058
0.026266757 0.045016974 0.0049184086
0.028076971 0.030844241 0.0041861823
0.02661399 0.035052504 0.0091119595
0.02572627 0.041618809 0.0091563119
0.024601115 0.049027778 0.0081723398
0.022405928 0.057995941 0.0075975326
0.02017008 0.065032259 0.00732947
0.017152701 0.074905872 0.0060541998
0.013816453 0.089623488 0.0043688538
0.012033006 0.10241633 0.003999739
0.015301951 0.080723077 0.0061241989
0.018270865 0.070348963 0.0073123639
0.023694666 0.051654246 0.0089657856
0.024970789 0.04500927 0.0095277233
0.012338837 0.090186283 0.0073831147
0.010697684 0.10424369 0.0064851544
0.014173635 0.078410715 0.0096120732
0.016766321 0.06761542 0.011967037
0.019306371 0.059898429 0.012677574
0.020913184 0.051283646 0.014442459
0.022010613 0.043501597 0.015649285
0.023523184 0.037058719 0.01506629
0.020379731 0.035602216 0.019319931
0.018371642 0.051474463 0.017499322
0.01047649 0.091799252 0.0094438987
0.019196425 0.041614331 0.019423043
0.016797578 0.058059189 0.016644813
0.014448918 0.067656904 0.014654713
0.012328232 0.076864928 0.012540952
0.010372072 0.088187166 0.010505022
0.0087331077 0.10265642 0.0091622882
0.017872283 0.044819813 0.019919071
0.014431735 0.034588616 0.024199575
0.014097787 0.049927562 0.021521349
0.010697129 0.066477634 0.018044408
0.0088202972 0.077855632 0.014868189
0.0074397246 0.090043008 0.012337924
0.0066206483 0.10552628 0.010490375
0.012548278 0.043218918 0.02396331
0.0050139055 0.1141601 0.010911003
0.0099131186 0.036707681 0.026156487
0.0090041757 0.043901358 0.025376039
0.0085624484 0.051184032 0.023952056
0.0045235977 0.090612091 0.013573841
0.0041412823 0.10739547 0.011545855
0.0052367765 0.075888887 0.017096857
0.0074061989 0.057225704 0.02271227
0.0037364669 0.03668296 0.027719121
0.0039616623 0.044961575 0.026439615
0.0028528715 0.071975179 0.018927554
0.0019887453 0.080793157 0.016344069
0.0015879655 0.093278512 0.013764382
0.0014056925 0.10963589 0.012060135
0.0020072621 0.042546187 0.027080439
0.0018117711 0.051131219 0.025384638
0.0015935424 0.058073815 0.023584185
0.0014343638 0.068749517 0.020162193
0.0012527065 0.077734992 0.017276082
0.0010076816 0.10496569 0.012405068
0.00057548989 0.033140395 0.028273096
0.00075146079 0.065471351 0.021297416
0.00036013403 0.074192159 0.018414073
0.00038325432 0.10175263 0.012738702
0.028392164 -0.041886274 3.134767e-05
0.028385859 -0.023968836 0.00050906383
0.028386328 0.014611378 0.00047340133
0.028379707 -0.013180585 0.00097498437
0.028348664 -0.017783364 0.0015641813
0.028362855 -0.033043686 0.0013494624
0.028367164 0.00032918848 0.0012842724
0.028340481 -0.0064502265 0.0016879839
0.028288996 -0.027986178 0.0024669275
0.028283881 0.018432496 0.0025443018
0.028259307 -0.040090397 0.0027841497
0.028162742 -0.043081202 0.0035931747
0.028201919 0.0092414254 0.0032649508
0.028145898 0.014347565 0.0037342825
0.028220853 0.028079081 0.003106317
0.028099161 -0.0086379731 0.0041206707
0.028009238 -0.0037080538 0.0046395338
0.027875483 0.02399748 0.0054113246
0.027884269 0.011605117 0.0053606224
0.02777149 -0.021313787 0.0059091169
0.027688321 0.027853742 0.0062735104
0.027698062 0.0038587644 0.0062308293
0.027637554 -0.035776891 0.0064959335
0.027532974 -0.028674889 0.0069541186
0.027549233 -0.0078930706 0.0068828869
0.02745988 -0.0017100871 0.0072296448
0.027410883 -0.043552194 0.0074018482
0.027338918 0.0097862128 0.007654781
0.027138861 0.0066675902 0.0083579132
0.02690524 -0.038106378 0.0090623982
0.027054375 0.0011120635 0.0086269975
0.026916098 -0.020890292 0.009030696
0.0269819 -0.012759353 0.0088385902
0.026915662 -0.032900121 0.0090319728
0.026746651 0.013926642 0.0095254006
0.026771784 0.016935313 0.0094520245
0.02702046 0.021809386 0.008726011
0.026548332 -0.0016745578 0.010075184
0.026373029 -0.015826561 0.010510548
0.02641527 -0.0053587779 0.010405642
0.026401002 -0.030127417 0.010441074
0.026273483 0.029279625 0.010757763
0.025850251 -0.0095059276 0.011740188
0.025593136 -0.018691545 0.012292631
0.025598716 0.0013956083 0.012280639
0.025492016 -0.023947025 0.012509899
0.025435839 -0.033435877 0.012630604
0.025148481 -0.037402503 0.013174947
0.02524611 -0.041510802 0.012991206
0.025005655 -0.028395528 0.013443754
0.025199242 0.019523989 0.013079414
0.025354384 0.024725523 0.012787428
0.024956133 0.0080848476 0.013536958
0.024728721 0.01339653 0.013964957
0.024089754 0.02259063 0.015030123
0.023951041 -0.022766342 0.015260904
0.023958923 -0.01166865 0.01524779
0.023534367 -0.015523063 0.015878657
0.023272162 -0.043987352 0.016266899
0.023330316 0.0089861862 0.016180789
0.023330938 0.026259912 0.016179869
0.022903981 -0.032810934 0.016780203
0.022877878 -0.025212727 0.01681477
0.023102107 0.014115605 0.01651784
0.022335136 -0.028517585 0.017533476
0.022231568 -0.0083563915 0.017670624
0.022460278 -0.019011287 0.01736776
0.022804808 0.019094994 0.016911529
0.022359174 0.0017286382 0.017501645
0.021717221 -0.022663543 0.018285522
0.022158431 -0.038932234 0.017761271
0.022142166 0.023786912 0.017780596
0.021266092 0.015604104 0.01882156
0.021679688 0.028293878 0.01833012
0.021568844 -0.013108416 0.018461825
0.021040283 0.012295309 0.019066086
0.020667089 -0.034567188 0.019464761
0.020622738 0.0086784298 0.019512141
0.019930534 -0.016670814 0.020221248
0.019968037 -0.031663865 0.020185202
0.019343361 -0.0013194541 0.020785619
0.019818112 0.022954177 0.020329306
0.019441489 -0.027897432 0.0206913
0.018898981 0.0064910464 0.021190105
0.018598998 -0.037807044 0.021449411
0.018519638 -0.019098913 0.021518009
0.018958719 0.018580079 0.021138467
0.018950287 0.027963977 0.021145755
0.018501388 -0.0054310132 0.021533785
0.017519003 -0.042479455 0.022340609
0.01767051 -0.013002315 0.022223024
0.016921015 -0.0079806205 0.022804709
0.017341925 0.021865793 0.02247804
0.016809039 -0.035456952 0.022891195
0.016727552 -0.027397813 0.022947811
0.01632739 -0.0016040697 0.023225825
0.016286075 0.013473317 0.023254531
0.015687143 0.0092273289 0.023670644
0.014843387 -0.019492986 0.024200957
0.015326683 -0.022632467 0.023901712
0.014536845 0.019189127 0.024390759
0.014633475 0.0043554665 0.024330929
0.013736799 -0.029266527 0.024845684
0.013681754 -0.041622382 0.024875868
0.013997303 0.01460582 0.024702828
0.013025178 -0.03465388 0.025235923
0.013249681 0.027814394 0.02511281
0.012908682 0.0088450341 0.025294146
0.012713259 -0.021443589 0.025388256
0.012475588 -0.011754662 0.025502712
0.012118874 -0.0010111823 0.025674496
0.011792233 -0.015904089 0.025831798
0.011070433 -0.019021032 0.026143074
0.011446994 -0.040139839 0.02598564
0.011080585 -0.029432846 0.026138829
0.010997386 0.0041128746 0.026173614
0.010411404 -0.0071785366 0.026418604
0.0105186 0.010999606 0.026373787
0.010148459 -0.04322898 0.026521808
0.010165003 -0.024646806 0.026515896
0.0098349014 0.020269245 0.026633853
0.0098310616 0.029229634 0.026635226
0.0099363551 0.015421139 0.0265976
0.0088326139 -0.021319378 0.026991148
0.0080626411 -0.032537494 0.027221253
0.0077005476 -0.014321429 0.027329464
0.0073645804 0.018262599 0.027427247
0.0063879937 0.0026756118 0.027663752
0.0065868814 0.022532791 0.027615586
0.0071498682 0.012384414 0.027479246
0.0062821382 0.028643854 0.027689388
0.0053804615 -0.0053062532 0.02787609
0.0051518665 -0.037795179 0.027918823
0.0053834142 -0.018874228 0.027875539
0.004991964 0.0068793357 0.027948713
0.0049086404 -0.0013308993 0.027964288
0.0043679504 -0.030926516 0.028059306
0.0034733822 -0.034707393 0.028178079
0.0038921097 0.013000866 0.028122483
0.0033993295 0.024126377 0.02818791
0.003661592 0.0038638117 0.02815309
0.0023116397 -0.043106984 0.028295912
0.002133674 -0.014402971 0.028310036
0.0019919488 -0.022286318 0.028321285
0.0018016532 -0.010487186 0.028336387
0.0015657112 -0.029346861 0.028355114
0.0016920054 0.019119704 0.028345089
0.0011481092 -0.017215623 0.028369684
0.0013171735 -0.025987634 0.028365219
0.0014596828 -0.0063181873 0.028361456
0.00022263791 0.0073109274 0.02839412
0.00060199248 0.027813805 0.028384104
-3.5527094e-07 0.011681559 0.028399991
-0.00014551758 -0.036616161 0.028396158
-0.001409582 -0.039426237 0.028362779
-0.0010119162 -0.00096521853 0.028373279
-0.0017714776 -0.019548897 0.028338782
-0.0019730949 -0.025034722 0.028322781
-0.0020937973 0.022002308 0.028313201
-0.0022742867 0.0028508687 0.028298877
-0.0022478043 -0.043924395 0.028300978
-0.0028160189 0.028221494 0.028255882
-0.0037409917 -0.031827562 0.028142547
-0.003249235 0.015694847 0.028207839
-0.0040952815 -0.013382225 0.028095508
-0.0043939725 -0.036385246 0.02805585
-0.0053157164 -0.028538119 0.027888194
-0.0058113202 0.028466797 0.027795549
-0.0053867684 -0.0062954007 0.027874911
-0.0059361998 -2.3719492e-06 0.027772205
-0.0056000319 0.010550654 0.027835045
-0.0070410105 -0.022319136 0.027505608
-0.0063419966 0.017412802 0.027674893
-0.0065594711 -0.040595699 0.027622225
-0.0073925224 -0.043693177 0.02742048
-0.0078622857 -0.030757753 0.02728113
-0.008622257 0.022160724 0.027054014
-0.0090733999 0.0037976797 0.026905969
-0.0093641188 -0.038483575 0.026802083
-0.0092435637 -0.019188026 0.026845163
-0.0097390395 -0.0063233846 0.026668109
-0.0097575635 -0.0099041602 0.026661489
-0.010059203 -0.032899804 0.026553702
-0.010315864 0.017018829 0.026458548
-0.01111388 -0.014876162 0.02612491
-0.010785554 -0.022228429 0.026262177
-0.01085608 0.0062175756 0.026232691
-0.011169787 0.0098724598 0.026101535
-0.011869639 0.00099410745 0.025794521
-0.012299791 0.026575463 0.025587371
-0.012394562 -0.026039533 0.02554173
-0.012654006 -0.0059285732 0.02541679
-0.01294531 -0.030037127 0.025276506
-0.014015779 -0.035408441 0.024692696
-0.013054611 -0.0026983968 0.025219781
-0.013977279 -0.0090343906 0.024713809
-0.01363074 0.017993685 0.024903845
-0.01424568 -0.020431235 0.024566622
-0.014774377 -0.012680344 0.024243686
-0.014772644 -0.027499773 0.024244757
-0.014565319 0.013760465 0.024373129
-0.014806511 0.0082046138 0.02422379
-0.014931672 0.023095375 0.024146292
-0.015654197 -0.0064047175 0.023693532
-0.016464027 -0.038755409 0.023130896
-0.016674813 0.0043460159 0.022984451
-0.017377865 -0.043472797 0.022450147
-0.016916534 -0.029607514 0.022808189
-0.017307855 -0.010454848 0.022504482
-0.017817454 0.023136206 0.022108981
-0.018838231 -0.038737532 0.021242617
-0.018313967 -0.018603083 0.021695793
-0.01834916 -0.024633145 0.021665372
-0.018478902 -0.0055832821 0.021553224
-0.019092808 0.027891612 0.02102256
-0.018478079 -7.1962699e-05 0.021553935
-0.018827962 0.012613889 0.021251494
-0.019282915 -0.021679908 0.020843716
-0.019541074 0.0093674548 0.020595584
-0.019885641 -0.031266447 0.020264398
-0.019553246 -0.03571751 0.020583885
-0.020025048 0.018101355 0.020130405
-0.020717619 -0.024262046 0.019410782
-0.020851372 -0.040373687 0.019267896
-0.021077279 -0.043508723 0.019026564
-0.02111049 -0.011347667 0.018991085
-0.021715827 -0.02749509 0.018287178
-0.021400429 -0.037152331 0.018661937
-0.021523001 -0.016284732 0.018516297
-0.021968054 -0.032725465 0.01798748
-0.021647293 0.022507021 0.018368611
-0.021740768 -0.0027753052 0.018257543
-0.022421019 0.0045158081 0.017419748
-0.022997804 -0.0081744576 0.016655961
-0.022556119 0.014032018 0.017240847
-0.022509608 0.028278446 0.017302437
-0.023165161 0.0081761042 0.016425334
-0.023369085 -0.0011179649 0.016123386
-0.0233433 -0.014674067 0.016161565
-0.023632171 -0.035317663 0.01573384
-0.023709865 -0.041055381 0.015618798
-0.023975503 0.024230309 0.015220206
-0.024410293 -0.022057163 0.014496834
-0.024092333 0.020288192 0.015025833
-0.02480964 -0.031398058 0.013812665
-0.024866985 0.0022450706 0.013704738
-0.025031023 0.0098775895 0.013396012
-0.024957532 0.0058315177 0.013534322
-0.025196789 0.014843321 0.013084031
-0.025308549 -0.0054283561 0.012873691
-0.025449103 -0.043279503 0.012602106
-0.025498772 -0.012548239 0.012495385
-0.025641533 -0.017412785 0.012188646
-0.025770376 0.023514768 0.01191181
-0.026058553 -0.037857581 0.011291536
-0.026402531 -0.000528801 0.010437279
-0.026235426 0.017123016 0.010852281
-0.026483182 0.0070381342 0.010236986
-0.026935471 -0.027311049 0.0089741349
-0.026799489 -0.015227247 0.00937114
-0.0269679 -0.041532312 0.0088794604
-0.026626613 -0.0099902032 0.0098758498
-0.026751064 -0.020129915 0.0095125185
-0.027060658 0.0036645185 0.0086086551
-0.026891127 0.009926619 0.0091035999
-0.027023902 -0.032910876 0.008715963
-0.027371638 -0.017333413 0.0075397869
-0.027138639 0.024083277 0.0083586937
-0.027460856 0.028296834 0.0072262129
-0.027419569 -0.0057724933 0.0073713246
-0.027588334 -0.036330689 0.006711578
-0.027614966 0.018593734 0.0065948968
-0.027796974 -0.042678908 0.0057974653
-0.027774369 -0.014272129 0.0058965045
-0.027814373 0.00090377335 0.005721237
-0.028032616 -0.030803494 0.0045046452
-0.028065542 0.0052849012 0.0043146485
-0.028067712 -0.034871642 0.0043021278
-0.028042549 -0.0041861734 0.0044473209
-0.02797557 0.011445144 0.004833804
-0.028160324 -0.025982825 0.0036134324
-0.028118541 -0.022296092 0.0039634788
-0.0282187 0.015662225 0.0031243612
-0.028282275 0.020239521 0.0025686012
-0.028302798 0.024897737 0.0022580903
-0.028343977 -0.043368574 0.0016350729
-0.028364515 -0.038075641 0.0013243686
-0.028357726 0.010765623 0.0014270636
-0.028357806 -0.017584346 0.0014258742
-0.028384531 -0.028024616 0.00060958409
-0.028384153 -0.0078190854 0.00063819543
-0.028384527 0.028128766 0.0006098345
0.011975382 -0.04957296 0.025700133
-0.0042187488 -0.046261903 0.028069975
-0.006990198 -0.049818613 0.027472669
-0.0093822908 -0.046887726 0.026781196
-0.015629437 -0.046579763 0.023696922
-0.019816071 -0.048379119 0.020297615
-0.022685904 -0.048137903 0.017031597
-0.024069771 -0.045986954 0.015049614
-0.02631956 -0.046100844 0.010622172
-0.028135976 -0.046215434 0.0037437819
0.028036214 -0.048598729 0.0043325606
0.02601984 -0.046631616 0.011348043
0.024817707 -0.045109246 0.013795812
0.02351523 -0.048690695 0.015859645
0.020303918 -0.045991268 0.019842314
0.018288497 -0.047385674 0.021695167
0.014745701 -0.045229923 0.0242595
0.0076222192 -0.04680318 0.02733936
0.0030252698 -0.046605408 0.028225947
0.00046005947 -0.048785128 0.028360665
