# .PCD v0.7 - Point Cloud Data file format
VERSION 0.7
FIELDS x y z
SIZE 4 4 4
TYPE F F F
COUNT 1 1 1
WIDTH 653
HEIGHT 1
VIEWPOINT 0 0 0 1 0 0 0
POINTS 653
DATA ascii
14 -0.36698884 13.573872
14 -0.87185681 8.718358
14 -1.4760536 2.2759044
14 2.5451505 17.069265
14 1.2253249 13.304675
14 -0.35746908 7.5983782
14 -0.29128116 5.0556622
14 -0.12231019 1.3525206
14 2.1175177 12.276103
14 0.23672782 2.6663613
14 1.813489 14.078998
14 1.8747982 9.6468048
14 0.38629749 15.539868
14 -0.29583341 4.2303119
14 2.56812 1.1256735
14 -1.3357249 6.9731026
14 2.5569131 11.063822
14 -1.7799222 2.9776173
14 0.064817376 16.298584
14 0.29417256 14.562929
14 1.8172199 16.259399
14 2.2717204 9.0288916
14 0.42584205 3.7703369
14 2.0734506 25.769119
14 1.092816 20.419289
14 -0.98831737 2.6199238
14 0.64833009 8.7986889
14 1.5952139 22.435564
14 -0.19826053 8.6833878
14 -0.60022986 9.3254099
14 1.0667218 2.429671
14 0.50625986 7.4489455
14 -0.4744435 5.7813358
14 0.31418628 11.426362
14 -1.5796723 5.0515666
14 2.3140652 3.7079558
14 -1.059039 5.9793282
14 2.1010451 2.6999283
14 1.9518366 7.5963855
14 -1.3184577 7.831161
14 2.1881266 26.79616
14 -0.29907489 2.93976
14 -1.5658557 4.3705878
14 2.4630389 6.1821132
14 -0.25867534 12.923559
14 0.28528622 4.712182
14 1.8151654 5.9171119
14 1.7351931 1.2499845
14 1.7103803 16.945719
14 -2.0648386 1.5839827
14 -0.3653236 6.9226542
14 0.65424806 5.358108
14 2.5729008 22.791012
14 2.3359878 15.05276
14 2.5184667 23.650702
14 0.72919309 18.73048
14 0.43815115 1.5314921
14 1.9416096 21.665403
14 1.9184042 24.148207
14 1.9897459 13.214382
14 0.56440574 6.3275485
14 2.3336411 20.049234
14 -2.009511 3.8447814
14 2.2004974 28.334249
14 1.5353141 18.075075
14 0.50443715 10.128518
14 -0.84352505 5.2522283
14 1.0453854 6.7897215
14 1.6756629 23.354883
14 1.7587183 6.6422439
14 0.13895701 12.331272
14 0.72043753 8.0391006
14 0.37323314 13.658782
14 -0.5114634 10.955322
14 0.61954361 27.103819
14 -0.37494403 19.6492
14 -2.1754043 17.448757
14 -2.4210865 22.117338
14 -1.9030576 30.299028
14 -2.0288217 26.832712
14 -1.8885441 8.8501139
14 -0.61812508 20.209892
14 -2.2437794 16.41235
14 -2.1692915 23.672209
14 -2.2997463 25.715458
14 -1.487609 18.234619
14 -1.7936586 21.104374
14 -2.2526917 6.2627907
14 1.0847585 30.361147
14 -0.31558794 15.492435
14 -0.82347411 28.741507
14 0.080162838 25.201406
14 0.42434746 21.457478
14 -0.79336971 21.380459
14 0.050643165 23.384924
14 0.20130223 28.910105
14 -1.2792275 13.914228
14 -0.31362087 14.722868
14 -0.48742804 24.652245
14 0.82522649 23.300272
14 -2.09149 29.657852
14 0.33533001 24.036404
14 -0.013951104 30.119991
14 0.055348523 28.164925
14 0.30978537 20.412523
14 -1.888324 13.207121
14 -0.10025264 29.387953
14 -0.86803627 29.442711
14 -2.1311789 20.173307
14 0.50022131 29.844263
14 1.6814547 27.818419
14 1.5097418 26.975719
14 0.29134917 19.248455
14 -1.117362 12.170457
14 0.97987527 24.461142
14 -0.61945361 28.1611
14 1.9278809 30.536783
14 -2.1809328 13.867894
14 1.2545841 25.001339
14 -1.8122296 7.4574142
14 -2.2107882 28.527723
14 -1.3621687 9.2413349
14 -1.9981439 24.858635
14 -2.5413227 24.330481
14 -2.543988 27.749537
14 -0.034458719 26.992376
14 0.002155852 18.431334
14 -1.1412606 19.79319
14 -0.62187302 27.382772
14 -0.79217452 16.020628
14 1.5385809 28.888159
14 -0.32506463 22.83746
14 -1.3178352 27.757957
14 -1.3531587 25.384863
14 0.77838093 26.363161
14 -0.17410985 20.851362
14 -0.69330764 23.787045
14 -0.17650083 17.198355
14 -1.7635738 11.291978
14 0.070079967 30.949816
14 -0.95498645 30.518717
14 -2.3813059 20.963669
13.985188 2.9184012 26.260471
13.999185 2.602221 18.132729
13.992682 2.7491167 20.505291
13.984921 2.9244425 21.610706
13.978233 3.0755453 22.36125
13.996534 2.662091 29.067186
13.993814 2.7235475 27.17239
13.981224 3.0079772 30.020222
13.98416 2.9416459 28.100613
13.983161 2.9642076 19.646387
13.992883 2.7445791 25.185995
13.977241 3.0979674 30.923502
13.987845 2.8583875 13.812439
13.99784 2.632597 12.889462
13.975938 3.127404 2.8414779
13.991948 2.7657082 5.5274329
13.981026 3.012464 8.0799236
13.995095 2.6946001 2.3391156
13.982204 2.9858298 16.153036
13.980569 3.0227659 4.280448
13.972005 3.2162547 23.23546
13.989775 2.8148019 7.2144289
13.971707 3.2229779 24.259983
13.971809 3.2206583 12.294569
13.986159 2.8964698 1.5857981
13.968078 3.2964656 20.254137
13.944304 3.5144138 27.573914
13.944501 3.5126023 28.846638
13.955149 3.4149859 26.940813
13.947513 3.4849899 13.545616
13.964253 3.3315277 1.0074091
13.897116 3.8490376 21.043011
13.904581 3.8005905 24.549128
13.896182 3.855093 28.230625
13.907178 3.783736 18.637156
13.900385 3.827817 10.413006
13.912351 3.7501681 8.4161491
13.912187 3.7512283 11.049742
13.888553 3.9046056 22.498901
13.913052 3.7456141 6.1094751
13.896818 3.8509676 2.6095524
13.847008 4.1191692 21.795422
13.782065 4.4133029 24.720032
13.848308 4.1132812 27.43606
13.846007 4.123702 20.0842
13.785652 4.3970575 25.63295
13.819506 4.2437305 16.202116
13.754063 4.5401344 28.889692
13.748088 4.5671935 13.485387
13.810899 4.2827125 3.3691194
13.740059 4.6035571 12.095747
13.818926 4.2463565 6.9869118
13.785573 4.3974156 19.278732
13.752702 4.5462952 2.8136804
13.803887 4.3144703 11.492752
13.819242 4.2449226 1.3460935
13.738425 4.6109586 29.550341
13.765506 4.4883051 1.9640183
13.729401 4.6466737 26.922701
13.727858 4.6524372 9.0080681
13.720374 4.6803946 12.79368
13.554975 5.1976657 28.149357
13.68322 4.7968335 17.650347
13.695158 4.7595224 4.730186
13.519294 5.3091865 30.771584
13.67129 4.8341188 15.235474
13.68087 4.8041792 18.342787
13.598189 5.0625992 24.410683
13.672013 4.8318601 30.259056
13.718745 4.6858001 10.44518
13.707784 4.7200608 6.1226788
13.673336 4.8277249 23.324711
13.510053 5.3380709 3.0806375
13.607783 5.0326114 9.8708315
13.582651 5.1111622 1.9315155
13.522027 5.3006434 11.709276
13.526345 5.287148 16.826309
13.68897 4.7788625 1.0097182
13.550034 5.21311 21.358259
13.544568 5.2301912 15.645241
13.483594 5.409431 13.928337
13.436912 5.5297208 28.780861
13.488273 5.397377 29.414343
13.453901 5.4859433 20.098095
13.501629 5.3629608 25.248074
13.469803 5.4449677 3.8885694
13.435564 5.5331931 18.895544
13.447893 5.5014234 1.397478
13.423265 5.5648832 8.2608089
13.469794 5.4449897 6.055294
13.384284 5.6575589 29.975233
13.399131 5.6238103 20.976665
13.386383 5.6527872 23.605356
13.333994 5.7718782 15.131596
13.382909 5.6606851 27.051105
13.322428 5.7981701 24.187607
13.401754 5.6178451 18.287699
13.404066 5.6125913 2.3985188
13.316313 5.8120704 9.1116152
13.281405 5.8914218 11.128112
13.285985 5.8810105 17.775421
13.122171 6.216001 30.234449
13.22977 6.0087419 4.6187806
13.075787 6.3053498 23.035818
13.088137 6.2815614 26.533747
13.026961 6.3993993 9.6580563
12.971534 6.5061655 8.2792311
13.007778 6.4363503 7.3733864
13.017207 6.4181876 21.267324
12.981141 6.4876595 2.1963158
12.930646 6.5790858 27.778013
12.945867 6.5526924 11.047561
12.899914 6.6323781 6.2236743
12.905775 6.6222143 4.332027
12.903868 6.6255217 24.061348
12.851527 6.7071934 15.488625
12.705047 6.9331927 16.992476
12.786533 6.8074703 30.479935
12.848387 6.712039 22.374979
12.841974 6.7219334 14.783108
12.829097 6.7418008 11.807413
12.831039 6.7388039 19.255709
12.845464 6.7165494 29.788544
12.76245 6.8446269 26.999023
12.790506 6.8013401 20.93984
12.784646 6.8103824 28.533653
12.555394 7.1640849 4.4234834
12.630252 7.0485897 8.1213646
12.81741 6.7598314 3.4599011
12.620888 7.0630374 10.422406
12.554166 7.1659799 11.002312
12.768815 6.8348074 5.1195407
12.623395 7.0591683 14.114745
12.528811 7.2050982 15.212593
12.578666 7.12818 1.2518206
12.456188 7.3069105 16.25815
12.457127 7.3056278 19.494017
12.498242 7.2494411 17.845201
12.410498 7.3693471 5.4962759
12.398911 7.3851819 20.38834
12.418679 7.3581676 2.5448885
12.474214 7.2822776 1.8263228
12.360826 7.4329157 22.699699
12.290517 7.5205812 13.460671
12.274727 7.5402694 28.198191
12.379579 7.4095349 14.478463
12.276308 7.5382981 18.564964
12.113364 7.7414651 29.299541
12.253861 7.5662861 30.44598
12.172009 7.6683435 25.01296
12.283339 7.5295324 8.8740444
12.365748 7.4267788 3.9151182
12.300019 7.5087337 3.181509
12.272759 7.5427222 7.3395119
12.121785 7.7309651 10.235922
12.24989 7.5712366 6.2265239
12.045325 7.8212481 8.2539511
12.024152 7.844419 11.049167
12.044821 -7.8217998 30.697346
12.012074 -7.8576355 28.731745
12.058253 -7.8071008 21.296726
12.026827 -7.8414912 7.7086701
12.107372 -7.7489357 4.3043036
12.202463 -7.6303716 16.325459
12.166936 -7.6746693 12.768223
12.304667 -7.5029378 30.301088
12.10642 -7.750124 6.7351842
12.260265 -7.558301 18.486614
12.131711 -7.7185893 10.879328
12.129787 -7.7209873 19.793322
12.157496 -7.6864386 25.662821
12.272803 -7.5426683 22.157656
12.316722 -7.4879084 28.216093
12.378125 -7.4113474 15.572981
12.344519 -7.4532499 3.5096979
12.374757 -7.4155469 10.114156
12.306681 -7.5004287 8.6069469
12.354136 -7.4412589 25.053207
12.227799 -7.5987811 11.989915
12.370116 -7.4213333 26.302408
12.309623 -7.4967594 2.8207908
12.409634 -7.3705287 23.270885
12.461061 -7.300252 28.784637
12.471824 -7.2855439 4.8486857
12.430466 -7.3420606 1.2796121
12.438862 -7.3305864 9.186245
12.801838 -6.7838573 23.461594
12.637824 -7.0369062 16.340374
12.541862 -7.1849642 21.630783
12.778244 -6.82026 28.250322
12.526073 -7.2093215 5.9235396
12.561679 -7.1543884 13.485754
12.578584 -7.1283059 11.640792
12.793462 -6.7967806 24.710073
12.718932 -6.9117689 22.25663
12.519327 -7.2197299 17.728174
12.678241 -6.9745498 26.085386
12.541121 -7.1861057 7.2845244
12.720494 -6.909358 3.1158941
12.82129 -6.7538457 3.7744153
12.825768 -6.7469368 18.198158
12.64552 -7.0250325 8.6078882
12.599993 -7.0952759 6.7344456
12.68354 -6.9663739 2.3992491
12.779289 -6.8186474 16.949511
12.671441 -6.9850407 12.676877
12.875716 -6.6698737 28.950871
12.829198 -6.7416449 1.2845018
12.783605 -6.8119888 14.069362
12.936335 -6.5692205 19.356054
12.955839 -6.5353975 5.3543444
13.16947 -6.1248927 27.363014
13.130638 -6.1996932 23.404894
13.145428 -6.171205 26.555624
12.978827 -6.4921174 15.242862
12.985916 -6.4784627 20.545738
12.991293 -6.4681058 30.663044
13.061572 -6.3327312 22.645363
13.135544 -6.1902423 25.267174
13.039954 -6.374373 11.394948
13.188993 -6.0872879 21.326241
13.196448 -6.072927 9.2811937
13.135946 -6.189467 18.727032
13.098881 -6.2608643 13.614308
13.146719 -6.1687174 16.506989
13.02309 -6.4068551 7.5665812
13.211431 -6.0440669 10.91551
13.229042 -6.0101423 15.821139
13.067985 -6.3203778 12.143624
13.339736 -5.7588253 22.800816
13.306307 -5.8348165 30.219215
13.316706 -5.8111763 17.591499
13.279378 -5.8960295 2.7575436
13.40202 -5.6172414 27.012434
13.267732 -5.9225054 5.1246519
13.346326 -5.7438455 1.5105859
13.383956 -5.6583056 6.1235847
13.356797 -5.7200418 2.2043974
13.433454 -5.5386305 16.169716
13.427929 -5.5528669 20.661968
13.44878 -5.4991379 14.380057
13.445169 -5.5084429 29.710917
13.457851 -5.4757657 9.5713577
13.462936 -5.4626622 4.4860945
13.452505 -5.4895401 13.230901
13.483008 -5.4109421 12.18189
13.442171 -5.5161695 10.760936
13.539239 -5.2468481 21.538021
13.539441 -5.2462163 26.377165
13.613222 -5.0156136 25.176107
13.609369 -5.0276546 15.782385
13.513294 -5.3279395 29.136019
13.559712 -5.1828585 28.192755
13.616694 -5.0047612 18.367506
13.595064 -5.0723672 19.652193
13.622829 -4.9855843 22.072433
13.708908 -4.7165437 30.220331
13.561934 -5.1759124 23.438635
13.638058 -4.9379892 1.5902365
13.66662 -4.8487167 2.8884721
13.717239 -4.6905055 8.7377739
13.620269 -4.9935884 11.834763
13.656419 -4.8806005 4.1467977
13.672811 -4.8293672 17.355915
13.668374 -4.8432336 20.930885
13.603964 -5.0445485 14.062189
13.663345 -4.858953 16.678211
13.720632 -4.6794348 13.088251
13.735817 -4.6227045 10.343159
13.802272 -4.3217845 20.264086
13.843465 -4.1352148 24.818079
13.747981 -4.5676785 7.7149386
13.784945 -4.4002609 12.318184
13.817853 -4.2512174 22.21994
13.775005 -4.4452782 14.645247
13.773928 -4.4501586 26.814823
13.80498 -4.3095174 28.437275
13.817938 -4.2508321 29.442648
13.87388 -3.9974587 13.502609
13.862415 -4.049387 23.427698
13.793653 -4.3608232 11.697237
13.865849 -4.0338378 27.478867
13.758469 -4.5201778 4.8733172
13.860352 -4.0587339 18.439091
13.791471 -4.3707027 5.6908102
13.814518 -4.2663221 9.7731256
13.808798 -4.2922263 15.825722
13.875527 -3.9891405 30.207417
13.890332 -3.8930566 19.159763
13.881716 -3.948976 17.731468
13.916063 -3.7260742 28.708483
13.887887 -3.908927 19.733318
13.921342 -3.6918156 15.955063
13.887212 -3.9133112 1.5852396
13.912563 -3.7487838 4.2275796
13.910206 -3.7640829 11.440996
13.918901 -3.7076547 5.6558661
13.940182 -3.5521996 22.151575
13.95312 -3.4335847 20.458658
13.940967 -3.545002 29.782784
13.940218 -3.5518682 14.411572
13.935757 -3.5927646 12.06926
13.943465 -3.5220983 27.897032
13.962475 -3.3478289 23.628937
13.96323 -3.3409019 7.5318599
13.968323 -3.2942188 13.598171
13.966465 -3.3112504 22.841866
13.970221 -3.2565508 24.565596
13.98598 -2.9005315 20.151005
13.975832 -3.1297939 8.5568161
13.981513 -3.0014396 26.193663
13.992737 -2.747879 27.150927
13.990888 -2.789665 23.152905
13.976576 -3.1129856 30.201498
13.980049 -3.0345225 15.425116
13.968939 -3.2855134 18.74847
13.985201 -2.9181316 9.244298
13.995553 -2.6842723 11.37063
13.999553 -2.5939085 3.037133
13.994027 -2.7187366 6.9301591
13.987984 -2.8552735 14.689364
13.996373 -2.6657436 12.848855
13.994471 -2.7087262 17.832932
13.985291 -2.9160793 9.9865808
13.975094 -3.1464653 6.4813671
13.984342 -2.9375386 4.6981668
13.976867 -3.1064141 5.2849522
13.981818 -2.9945443 2.6260214
13.99128 -2.7808168 3.978415
13.979604 -3.0445807 10.854326
12.346133 3.7929115 -5.71283e-14
12.13688 -1.5252036 -5.2754052e-14
12.811193 1.7699986 -5.6263293e-14
12.139392 0.49756697 -5.276712e-14
12.776156 1.0494671 -5.6080954e-14
12.604373 -2.2476771 -5.5186965e-14
12.968914 0.35547462 -5.7084098e-14
12.218373 2.5317984 -5.6558823e-14
12.939881 3.0590351 -5.7151041e-14
12.344862 -3.4620771 -5.3996348e-14
12.234281 -4.6901302 -5.4863269e-14
12.104711 5.7346277 32
12.607562 -4.8158741 32
12.293294 -3.935657 32
12.258195 -5.600131 32
12.849653 -3.2408938 32
12.103246 -2.657203 32
12.596409 0.44367281 32
12.517928 -0.37578452 32
12.581617 -1.1287757 32
12.595312 2.0816 32
12.589142 2.7721696 32
12.149282 3.9839642 32
12.35308 4.9026275 32
13.16522 -2.738152 0.015052644
13.985512 -2.7900782 0.93876374
13.376914 -5.6581645 0.94128805
13.695898 -4.6937242 0.81078374
13.8136 -3.9097021 0.63310581
12.949454 -6.342586 0.59054726
13.775291 -3.2112224 0.41008168
13.250173 -5.3732262 0.36596036
12.038455 -7.3077669 0.26540735
13.352744 -4.2750845 0.17041992
13.264327 -3.6095812 0.060935337
12.235294 -6.6844864 0.11999345
12.361006 -5.8787212 0.014913885
13.279998 -2.0244753 0.043688688
13.388615 2.1742868 0.082034707
13.527987 -1.2287334 0.15357147
13.85326 1.504891 0.48176789
13.939701 0.82923073 0.65801203
13.96139 -0.70872736 0.73895758
13.991843 -1.6156827 0.90676808
13.412978 5.3399472 0.59317642
12.810061 6.3349471 0.37905505
13.487595 4.0976529 0.23594792
12.184091 7.0332847 0.21790335
13.120916 4.8316545 0.12210106
12.709586 5.299027 0.034198642
13.958301 -3.2431793 31.143017
13.07479 -6.2556553 31.197363
13.85915 -3.9417336 31.200806
12.424278 -7.2155719 31.380703
13.482114 -5.0302248 31.471184
13.196279 -5.5947223 31.582298
13.777625 -2.7904372 31.613186
13.604984 -3.5522833 31.735064
12.461842 -6.5248103 31.814646
13.288478 -4.1258736 31.886301
13.030354 0.92288375 31.997343
13.159822 1.6437707 31.986015
13.271458 0.040925171 31.958599
13.440866 -1.6272919 31.8936
13.427135 2.5147598 31.900003
13.715241 1.1624722 31.693592
13.804501 -1.947992 31.587868
13.840821 1.7565532 31.535995
13.903862 0.63028485 31.418858
13.950322 -0.56360501 31.302349
13.992519 1.267087 31.085508
13.182156 6.0706763 31.150133
13.701371 4.2888699 31.436699
12.572852 6.9081864 31.480011
13.738793 3.7044547 31.556179
12.857874 6.2780738 31.598549
12.990989 5.6725535 31.759649
13.168921 5.0503807 31.805094
13.174314 4.3909445 31.911146
12.027207 6.498816 31.979315
13.025273 3.7554569 31.989019
13.299191 5.9439993 3.0645123
13.171904 6.3543901 3.7219436
13.941421 3.6762137 4.009017
13.939124 3.5825734 3.2661977
14.099999 1.4969312 3.1118562
14 0.98135418 3.5838544
14 -0.90040094 3.4376237
13.880303 -4.0239534 3.1015897
13.211903 -6.1373048 4.0148044
13.472831 -5.7443657 3.5550132
13.058884 -6.3574586 3.1277614
14.004902 3.8229699 5.3839884
13.845893 4.2175922 8.130538
14.006211 3.384726 9.9894142
13.907115 3.8337643 13.086582
13.979093 3.9987657 12.467721
14.063975 3.4206178 14.9796
13.868952 4.0605316 14.576415
14.036736 3.6061497 17.554621
13.847901 4.2039142 17.154676
14.047313 3.3476162 19.124552
13.90718 3.8001544 19.49748
13.885201 3.949857 23.721882
14.036035 3.6109231 25.986919
13.047753 -6.380024 6.0697141
13.09446 -6.5113783 8.1646605
13.296131 -5.8765244 7.7102351
13.447688 -5.7349391 10.153192
13.206269 -6.2847252 10.123631
13.376863 -5.9389052 12.779603
13.333748 -5.8446589 15.248302
13.114182 -6.2453628 14.418851
13.128745 -6.4418788 17.41189
13.294096 -5.8806491 19.558365
13.031205 -6.606874 21.624079
13.430846 -5.8294744 21.918552
13.383471 -5.7842312 24.249063
13.039207 -6.3973475 24.313671
13.258053 -5.9537148 25.933659
13.415771 -5.8098698 28.170189
13.264812 -6.1660514 28.939993
13.155015 -6.3886247 28.320223
13.908861 -3.7887039 8.1237001
13.960903 -4.1226516 10.651917
14.01274 -3.7695835 9.9812613
13.94453 -3.5457568 12.672352
13.929102 -3.650836 15.098514
13.987417 -3.2807789 17.302174
13.925099 -3.6781001 16.663065
13.984634 -3.4847939 21.253944
13.975011 -4.0265675 21.469561
13.920444 -4.2078233 24.149349
13.921228 -3.7044642 25.717424
13.878455 -3.9958074 26.335997
14.099999 -1.6765499 5.7370553
14 -1.216068 10.068629
14 -1.6891763 10.556989
14.099999 -1.4779787 12.777467
14.099999 -1.7216319 14.794475
14 -1.1064378 14.911613
14.099999 -0.81103134 17.195229
14 -1.4695679 16.825577
14 -1.3218368 17.504978
14.099999 -1.6739784 19.396112
14 -1.1590728 18.996452
14.099999 -1.3780501 22.005295
14.083989 -1.2999693 24.442036
14.099999 -1.6341543 23.866646
14.077681 -0.92798477 25.833359
14 -1.3177024 26.641733
14 -1.4544009 28.631113
14.099999 1.1509759 6.0163088
14.062485 1.2857133 8.5530663
14.099999 1.6882744 10.420377
14 1.2206947 10.742828
14.099999 0.97587311 12.686852
14 1.2717587 12.097802
14.099999 1.1150045 15.123446
14.099999 1.0792899 14.540777
14 1.7155453 14.825216
14.099999 0.92647344 17.026337
14.052499 1.4371305 18.942051
14 1.2522557 19.590654
14.099999 1.4342132 21.350868
14 1.1630197 28.214693
13.359684 5.973731 5.7762446
13.397694 5.8966799 7.7556229
13.369405 5.8980279 9.9166613
13.207071 6.2830987 10.473821
13.121466 6.456634 12.599834
13.251328 5.9673452 12.303103
13.247149 5.9758186 13.014798
13.229268 6.2381039 14.443105
13.286441 6.1222053 17.084873
13.280849 5.9075017 19.384295
13.070188 6.3345451 19.782825
13.235318 5.9997993 22.025259
13.345242 6.0030069 25.993368
13.375793 5.7704659 28.192204
13.069069 6.336813 28.895664
